ply
format ascii 1.0
element vertex 721
property float x
property float y
property float z
end_header
0.0434422120451927185 -0.092747710645198822 -0.258691638708114624
-0.0102542731910943985 0.0346660241484642029 -0.91283947229385376
0.0784463509917259216 0.00930309947580099106 -0.830999672412872314
0.00464294245466589928 0.0154525274410843849 -0.954168856143951416
-0.0297998655587434769 0.0742124840617179871 -0.800123929977416992
0.00903992541134357452 0.0820612907409667969 -0.790081262588500977
0.0331542789936065674 0.0818116664886474609 -0.738638222217559814
-0.0017595518147572875 0.0890959352254867554 -0.717424869537353516
0.051382899284362793 0.0718727260828018188 -0.72451329231262207
-0.0739810094237327576 -0.0365416035056114197 -0.837132811546325684
0.0622795410454273224 0.044875703752040863 -0.836726665496826172
-0.0645669549703598022 0.0476715117692947388 -0.81336367130279541
-0.0783088430762290955 0.0352276749908924103 -0.774589121341705322
0.0379768535494804382 -0.00453000795096158981 -0.951249182224273682
-0.0208769012242555618 0.0514735020697116852 -0.886181414127349854
-0.0154682807624340057 0.021176634356379509 -0.933338522911071777
-0.00430456222966313362 0.00541565706953406334 -0.974886775016784668
-0.0456207543611526489 -0.0728938356041908264 -0.855862438678741455
-0.0218435283750295639 0.00362699083052575588 -0.962837576866149902
-0.084234289824962616 0.0183606687933206558 -0.786096870899200439
0.052542608231306076 0.0692199766635894775 -0.77439802885055542
-0.0354103930294513702 0.025277215987443924 -0.912053108215332031
-0.0096127362921833992 0.0865487903356552124 -0.744606196880340576
0.0737390890717506409 0.0512171536684036255 -0.738921463489532471
0.0806004330515861511 0.02057657390832901 -0.808810889720916748
-0.0449033714830875397 -0.0319974608719348907 -0.936872661113739014
0.0881260707974433899 -0.0024667554534971714 -0.77717280387878418
-0.0232334639877080917 0.0842263177037239075 -0.716271758079528809
-0.0516749434173107147 -0.0561420246958732605 -0.890485525131225586
0.0338287465274333954 0.0753156393766403198 -0.794635951519012451
0.0713635161519050598 -0.0491217859089374542 -0.825849711894989014
0.0349900834262371063 0.052858937531709671 -0.877861142158508301
-0.075379200279712677 -0.000140433432534337044 -0.836614370346069336
-0.0300980731844902039 0.0642255321145057678 -0.843191981315612793
0.0669749081134796143 0.0304972734302282333 -0.852263033390045166
0.0429770462214946747 -0.0620475821197032928 -0.901442170143127441
-0.0489618964493274689 0.0714742764830589294 -0.744370996952056885
0.0791217833757400513 -0.0227526761591434479 -0.827244818210601807
0.0260914098471403122 0.0158269740641117096 -0.938199520111083984
0.0889601036906242371 0.0178527720272541046 -0.756194591522216797
-0.062440820038318634 -0.00392226455733180046 -0.893965840339660645
0.0806901976466178894 0.0281469598412513733 -0.79046630859375
0.0467195138335227966 -0.0222419016063213348 -0.9402579665184021
-0.00456428760662674904 0.0868857875466346741 -0.773960292339324951
0.0387369655072689056 -0.0530495420098304749 -0.928491950035095215
0.0718363597989082336 -0.0133677143603563309 -0.867757081985473633
0.0242873858660459518 0.000261853390838950872 -0.966141223907470703
0.0549709796905517578 0.0110908076167106628 -0.903773307800292969
-0.0400939472019672394 -0.00254644313827157021 -0.942178189754486084
0.0825121775269508362 -0.0295847430825233459 -0.80839228630065918
0.0756004303693771362 -0.00978461652994155884 -0.846825003623962402
-0.0862169861793518066 -0.0290000326931476593 -0.776342272758483887
-0.080312579870223999 0.0147737367078661919 -0.80917668342590332
0.0459068827331066132 0.030527990311384201 -0.89907073974609375
-0.0460624955594539642 0.0718352720141410828 -0.778673350811004639
-0.0657253190875053406 -0.0441465564072132111 -0.863214850425720215
0.00016373107791878283 0.0481400378048419952 -0.897604644298553467
0.0604129210114479065 -0.0643201544880867004 -0.839571475982666016
-0.0780014246702194214 -0.0205310061573982239 -0.82203143835067749
-0.0869653820991516113 0.00396302388980984688 -0.753859639167785645
-0.0445658974349498749 0.0454892143607139587 -0.880462110042572021
0.0561398081481456757 -0.0287619270384311676 -0.920071899890899658
0.0657417476177215576 -0.0351398587226867676 -0.887365162372589111
-0.0774955451488494873 -0.0409311801195144653 -0.802014350891113281
0.0522665753960609436 0.0488111600279808044 -0.854258060455322266
0.0338510237634181976 0.0269621871411800385 -0.913436651229858398
-0.0482005402445793152 0.0544488541781902313 -0.838978111743927002
0.0581289380788803101 -0.00980093982070684433 -0.914987266063690186
-0.0231768153607845306 0.0603390634059906006 -0.862516880035400391
0.0685154721140861511 0.0201618112623691559 -0.86914825439453125
0.0594832524657249451 -0.0584952309727668762 -0.868324518203735352
-0.0605419352650642395 0.0581356324255466461 -0.786646008491516113
0.0784566253423690796 0.0392744913697242737 -0.773309290409088135
0.0713551566004753113 -0.0401592664420604706 -0.854122757911682129
0.0225342456251382828 0.0683712363243103027 -0.828779041767120361
-0.0818660110235214233 -0.00373888271860778332 -0.800538718700408936
-0.0607701465487480164 -0.0650959163904190063 -0.82219463586807251
0.0537381172180175781 0.0576018132269382477 -0.814814388751983643
-0.0612212978303432465 -0.0593295618891716003 -0.842692732810974121
-0.0602774284780025482 -0.033108297735452652 -0.900076866149902344
-0.00268047838471829891 0.0651088356971740723 -0.852166056632995605
-0.0642051920294761658 0.0290225651115179062 -0.859249651432037354
0.0180839020758867264 0.0843943282961845398 -0.769465088844299316
0.0701095312833786011 0.0372563600540161133 -0.820885062217712402
-0.0655981972813606262 0.0575048401951789856 -0.76463770866394043
-0.0753082558512687683 0.0434720441699028015 -0.74231255054473877
-0.065425574779510498 0.0343031100928783417 -0.84076392650604248
0.0204327814280986786 0.0855531617999076843 -0.708480596542358398
-0.0283869840204715729 -0.0263396091759204865 -0.967604398727416992
0.069848380982875824 -0.0580708682537078857 -0.8068503737449646
-0.0208461768925189972 -0.0711656585335731506 -0.916161417961120605
-0.0301290825009346008 -0.0553758777678012848 -0.934954345226287842
0.00987057387828826904 -0.00254740170203149319 -0.985153079032897949
-0.0175268277525901794 -0.0783241540193557739 -0.895713269710540771
-0.0739569142460823059 0.0477415993809700012 -0.718885183334350586
-0.017635127529501915 -0.084324762225151062 -0.877195835113525391
0.00318502308800816536 -0.081365734338760376 -0.89419245719909668
-0.0567951500415802002 0.066451050341129303 -0.709053754806518555
0.00612530577927827835 -0.0741486623883247375 -0.914998769760131836
0.0248175524175167084 -0.0696842074394226074 -0.919720470905303955
0.0212842933833599091 -0.0859521105885505676 -0.869010031223297119
-0.153033316135406494 -0.0538512282073497772 -0.017274094745516777
-0.260368496179580688 -0.0281964316964149475 0.0258965473622083664
-0.248372048139572144 -0.036415833979845047 0.00659002037718892097
-0.218574464321136475 -0.032910522073507309 -0.0125622181221842766
-0.126468360424041748 -0.0543082356452941895 -0.0105525394901633263
-0.121482551097869873 -0.041028149425983429 0.00475546577945351601
-0.160278216004371643 -0.0400258004665374756 0.0123672187328338623
-0.221225276589393616 -0.0476729869842529297 -0.0166039466857910156
-0.14369635283946991 -0.0380345694720745087 0.00225114100612699986
-0.139867484569549561 -0.028821457177400589 -0.0197907052934169769
-0.204485967755317688 -0.0495912693440914154 -0.0286211147904396057
-0.239910721778869629 -0.0200576726347208023 -0.0173790343105792999
-0.188553139567375183 -0.0425489544868469238 0.044757109135389328
-0.247740298509597778 -0.0440063811838626862 -0.0215270444750785828
-0.175274014472961426 -0.0549342073500156403 -0.0410756133496761322
-0.219298377633094788 -0.0338965468108654022 0.0128590790554881096
-0.221408665180206299 -0.0576810687780380249 -0.0377447381615638733
-0.168961361050605774 -0.0328020229935646057 -0.00629546213895082474
-0.193652212619781494 -0.0299995038658380508 -0.00728657189756631851
-0.193355545401573181 -0.0562917850911617279 -0.0141571341082453728
-0.197673112154006958 -0.0229648575186729431 -0.0321761704981327057
-0.195285335183143616 -0.0612641535699367523 -0.0446976795792579651
-0.221857026219367981 -0.0319686643779277802 -0.0330072306096553802
-0.100223101675510406 -0.0482893697917461395 0.00786359235644340515
-0.154248803853988647 -0.0589781627058982849 -0.0532142333686351776
-0.289035111665725708 -0.0341653674840927124 0.0161343570798635483
-0.115183353424072266 -0.0632582604885101318 -0.0240360703319311142
-0.217422336339950562 -0.0419047288596630096 -0.0574107281863689423
-0.0903530940413475037 -0.00199918774887919426 0.061534833163022995
-0.273015856742858887 -0.0159215684980154037 -0.00948932860046625137
-0.0903530940413475037 -0.0279640927910804749 0.0532827824354171753
-0.0903530940413475037 -0.0185541659593582153 0.0748686864972114563
-0.0882727503776550293 -0.0332897603511810303 0.0166804604232311249
-0.215149775147438049 -0.0192012675106525421 -0.0559393800795078278
-0.142366617918014526 -0.025214366614818573 -0.0514883585274219513
-0.227538898587226868 -0.0647060871124267578 -0.0833917632699012756
-0.318510144948959351 -0.0353981368243694305 0.000835955142974853516
-0.0903530940413475037 0.0128689007833600044 -0.00396971916779875755
-0.315662503242492676 -0.0318352095782756805 0.0248118303716182709
-0.122328400611877441 -0.0632726848125457764 -0.0421434342861175537
-0.0927032232284545898 -0.0640167444944381714 -0.0203126166015863419
-0.0627622604370117188 -0.07538624107837677 0.0287599470466375351
-0.240888074040412903 -0.0484554693102836609 -0.0562290363013744354
-0.0835031718015670776 -0.0430001989006996155 0.105956681072711945
-0.0765761584043502808 -0.0577607564628124237 0.123845227062702179
-0.0903530940413475037 -0.0203322600573301315 -0.00742809288203716278
-0.0803171843290328979 -0.0502595007419586182 0.0635183975100517273
-0.0727154091000556946 -0.0659926235675811768 0.0754399299621582031
-0.225178003311157227 -0.0589138418436050415 -0.0576968379318714142
-0.232689827680587769 -0.0320253036916255951 -0.0713188722729682922
-0.289458543062210083 -0.0388362519443035126 -0.00748454639688134193
-0.0903530940413475037 -0.0209400039166212082 0.0960878282785415649
-0.184020504355430603 -0.0581332743167877197 -0.0916141420602798462
-0.199489623308181763 -0.0536726526916027069 -0.0664571821689605713
-0.0903530940413475037 -0.0117461057379841805 0.0112535087391734123
-0.0903530940413475037 0.0174533743411302567 0.0865329131484031677
-0.262299269437789917 -0.0458276942372322083 -0.0492568984627723694
-0.306902557611465454 -0.010500861331820488 -0.012096957303583622
-0.0903530940413475037 -0.00300536979921162128 -0.0337946079671382904
-0.0716560333967208862 -0.0677476972341537476 0.0125526180490851402
-0.276228338479995728 -0.0127484537661075592 -0.0336722917854785919
-0.294990599155426025 -0.0232653673738241196 0.0375621281564235687
-0.0703981146216392517 -0.0813359767198562622 -0.0144544783979654312
-0.0903530940413475037 0.00467446167021989822 0.0320415608584880829
-0.275128096342086792 -0.0428638570010662079 -0.0325676016509532928
-0.0903530940413475037 -0.0119746103882789612 0.125070318579673767
-0.0903530940413475037 0.0120307356119155884 0.11747017502784729
-0.0903530940413475037 -0.000369896733900532126 0.0990132316946983337
-0.089015670120716095 0.0220983363687992096 0.0429598018527030945
-0.320385217666625977 -0.021426783874630928 0.0517840683460235596
-0.104974627494812012 -0.0292400680482387543 -0.0244700349867343903
-0.253817737102508545 -0.0117470640689134598 -0.0732188895344734192
-0.244854271411895752 -0.0159945469349622726 -0.0472106412053108215
-0.0707786977291107178 -0.0365636944770812988 -0.00914647802710533142
-0.293643593788146973 -0.0404981747269630432 -0.0257005896419286728
-0.0706376656889915466 -0.0684860050678253174 0.0452486760914325714
-0.159576401114463806 -0.0598384179174900055 -0.0803014934062957764
-0.172546371817588806 -0.0221775807440280914 -0.0699062123894691467
-0.185364648699760437 -0.0185474418103694916 -0.091608002781867981
-0.0960937142372131348 -0.0691321492195129395 -0.0703016892075538635
-0.316816538572311401 -0.0381824113428592682 -0.0229042079299688339
-0.219335809350013733 -0.0672609284520149231 -0.099170982837677002
-0.32437443733215332 -0.0110663576051592827 0.0167998056858778
-0.0788841396570205688 0.0431379266083240509 0.0290767792612314224
-0.291739702224731445 -0.00857970118522644043 -0.0500531084835529327
-0.208117067813873291 -0.0160732753574848175 -0.0911229625344276428
-0.075858384370803833 0.049420822411775589 0.0116695156320929527
-0.130086004734039307 -0.0644449666142463684 -0.0802830606698989868
-0.335817843675613403 -0.0307790990918874741 0.0293724890798330307
-0.143178880214691162 -0.0230781510472297668 -0.084862440824508667
-0.0597223974764347076 -0.0777336955070495605 0.0937566980719566345
-0.0479430407285690308 -0.0875161364674568176 0.0672666281461715698
-0.0770850107073783875 0.046873677521944046 0.0903685092926025391
-0.0500184856355190277 -0.0410223826766014099 0.000749550526961684227
-0.289978891611099243 -0.0434783250093460083 -0.0496665723621845245
-0.0840455368161201477 -0.077235393226146698 -0.0491831637918949127
-0.0804486200213432312 -0.02815994992852211 -0.0540195666253566742
-0.276621997356414795 -0.00942746642976999283 -0.0728172361850738525
-0.0903530940413475037 0.00955656915903091431 -0.0573321953415870667
-0.274913012981414795 -0.0466351285576820374 -0.0785523876547813416
0.0467175915837287903 0.0787220671772956848 0.372122883796691895
0.0732674822211265564 0.0577381551265716553 0.290978223085403442
0.01656348817050457 0.0893004313111305237 0.35020098090171814
0.0670786947011947632 -0.0725491568446159363 0.227221935987472534
-0.0293165519833564758 0.0855176374316215515 0.239017710089683533
0.0716574937105178833 0.0587241761386394501 0.400990128517150879
0.0647731050848960876 0.0645126104354858398 0.222792044281959534
0.0810313224792480469 0.04295358806848526 0.167668923735618591
0.0836110115051269531 -0.0464613623917102814 0.199966654181480408
0.0516052618622779846 0.0746963769197463989 0.406466573476791382
0.0703186392784118652 0.0600894279778003693 0.176441341638565063
0.0805340856313705444 -0.040853407233953476 0.388283252716064453
0.0895339548587799072 0.0249690227210521698 0.342902272939682007
0.0502976067364215851 0.0760568305850028992 0.159938201308250427
0.085131421685218811 -0.0421965979039669037 0.303438395261764526
-0.0354143306612968445 0.0839805305004119873 0.296654343605041504
0.0608180835843086243 0.0676665380597114563 0.30507245659828186
0.0789264962077140808 -0.0560777038335800171 0.278711020946502686
0.0456191413104534149 0.0797877758741378784 0.31100878119468689
0.0917481333017349243 -0.0167424511164426804 0.350906640291213989
0.0819461047649383545 -0.0499129109084606171 0.224052652716636658
0.0631004273891448975 0.0657079219818115234 0.358125627040863037
0.0540218278765678406 -0.0837515890598297119 0.253799378871917725
0.0420555435121059418 0.082629665732383728 0.284816324710845947
0.0919493734836578369 -0.027760552242398262 0.238433003425598145
0.0198391526937484741 0.0884257853031158447 0.265042126178741455
0.0924113690853118896 -0.0186789762228727341 0.192431777715682983
0.0911417379975318909 -0.0181730091571807861 0.378277122974395752
0.0924113690853118896 0.0136312274262309074 0.289368182420730591
-0.0183261092752218246 0.0882884934544563293 0.278523832559585571
0.0924113690853118896 -0.0140676209703087807 0.162634164094924927
0.0759328156709671021 -0.0628252625465393066 0.247139200568199158
0.0924113690853118896 -0.00608727987855672836 0.261545479297637939
0.0838017836213111877 0.0372006818652153015 0.245221823453903198
0.0206261444836854935 0.0882280021905899048 0.201509535312652588
0.0800593197345733643 -0.0478765405714511871 0.352702945470809937
0.084027409553527832 -0.0429617837071418762 0.329955369234085083
0.0796652957797050476 0.0448747463524341583 0.381977319717407227
0.0160354338586330414 0.0894713327288627625 0.373473703861236572
0.0746781602501869202 -0.0642106831073760986 0.326008349657058716
0.0430327355861663818 0.0817617401480674744 0.344874352216720581
0.0377834923565387726 0.0839018002152442932 0.236031785607337952
0.0924113690853118896 0.00566623685881495476 0.306269735097885132
0.047442849725484848 0.0783332288265228271 0.25507819652557373
0.0258417855948209763 0.0870345979928970337 0.394989550113677979
0.0288223158568143845 0.0861810743808746338 0.332801073789596558
0.0221190042793750763 0.0878516435623168945 0.304389864206314087
0.088637031614780426 -0.0347615927457809448 0.27140277624130249
0.0924113690853118896 -0.0161260813474655151 0.302245020866394043
0.0755889043211936951 0.0542539581656455994 0.262230008840560913
0.0802388563752174377 0.0440903455018997192 0.354859352111816406
0.0850639268755912781 0.0345796160399913788 0.284677088260650635
-0.00686423294246196747 0.0911783874034881592 0.309032917022705078
0.0497503504157066345 -0.0851629301905632019 0.333720862865447998
0.038004022091627121 0.0838461071252822876 0.17322404682636261
0.0924113690853118896 0.00882784929126501083 0.179509818553924561
0.0747209787368774414 0.0560560561716556549 0.237500756978988647
0.0922560244798660278 0.000980959506705403328 0.327981412410736084
0.081010967493057251 0.0429958328604698181 0.222221717238426208
0.0504278950393199921 -0.0866510719060897827 0.302602171897888184
-0.00392468925565481186 0.0919195786118507385 0.216562926769256592
-0.0128230173140764236 0.0896940678358078003 0.331635534763336182
0.0120189571753144264 0.0903978273272514343 0.282640755176544189
0.09096536785364151 0.00398607179522514343 0.386238276958465576
0.068280927836894989 -0.0711934939026832581 0.298013806343078613
0.000281899061519652605 0.0929804891347885132 0.253793597221374512
0.0878314152359962463 0.0288324598222970963 0.261759549379348755
0.0568717867136001587 -0.0811660438776016235 0.279699951410293579
0.0896592438220977783 0.0242815911769866943 0.371321201324462891
0.0802782177925109863 0.0444561503827571869 0.325085759162902832
0.0917529389262199402 0.00489815929904580116 0.350690603256225586
0.0410988070070743561 0.0830665081739425659 0.207746326923370361
0.0924113690853118896 0.00990411918610334396 0.226811021566390991
0.0867197141051292419 0.0298482403159141541 0.407164573669433594
0.0836234018206596375 0.0375712774693965912 0.198515936732292175
0.0628450363874435425 0.0660237967967987061 0.327990055084228516
0.0894544646143913269 -0.0338562168180942535 0.170463770627975464
0.074588872492313385 0.0539793707430362701 0.418916165828704834
0.0830960124731063843 0.0386648289859294891 0.140268668532371521
0.0782266855239868164 -0.0583867281675338745 0.17387022078037262
0.0700763091444969177 0.0602833665907382965 0.146653324365615845
0.0874188542366027832 -0.0252220500260591507 0.408727586269378662
-0.0469077639281749725 0.0770514905452728271 0.339056134223937988
0.0628290995955467224 -0.0652908012270927429 0.388975471258163452
0.0341161042451858521 0.0849761515855789185 0.411868065595626831
-0.0202524513006210327 0.0878794863820075989 0.367292642593383789
0.0924113690853118896 -0.00124550261534750462 0.143522441387176514
0.0271323509514331818 -0.0974617823958396912 0.247589454054832458
0.0375755317509174347 -0.0950788259506225586 0.269250243902206421
-0.0570581220090389252 0.0690241158008575439 0.310216695070266724
-0.0112974215298891068 0.0900608301162719727 0.196138724684715271
0.0054824240505695343 0.0899062603712081909 0.3909110426902771
0.0510113462805747986 -0.0792717635631561279 0.364398866891860962
0.0239446312189102173 -0.0981895327568054199 0.307494789361953735
-0.0407368279993534088 0.0820401683449745178 0.318214297294616699
-0.0465338081121444702 0.0774172917008399963 0.257465004920959473
0.0898859277367591858 0.0119107319042086601 0.4349709153175354
0.0365053080022335052 -0.0953226909041404724 0.22193753719329834
0.0924113690853118896 -0.0239076744765043259 0.143655896186828613
-0.0392577983438968658 0.0830108299851417542 0.209696277976036072
0.162855431437492371 -0.0609137006103992462 -0.094139590859413147
0.0215088594704866409 -0.0273649897426366806 -0.0667514055967330933
0.185402393341064453 -0.0189766101539134979 -0.155266955494880676
0.162336021661758423 -0.0234650727361440659 -0.0615697018802165985
0.0855456069111824036 -0.0447591058909893036 -0.18091215193271637
0.0886065065860748291 0.027223341166973114 -0.15782657265663147
0.119098939001560211 -0.0692118331789970398 -0.188889607787132263
0.129100292921066284 -0.0689958333969116211 -0.13418164849281311
0.0506111755967140198 0.0758072137832641602 -0.0821707099676132202
0.0947615057229995728 -0.0313887596130371094 -0.107136346399784088
0.132216766476631165 -0.0650834143161773682 -0.0906744971871376038
0.0947615057229995728 -0.0325677655637264252 -0.0423098206520080566
0.0947615057229995728 -0.0456759855151176453 -0.0809814408421516418
0.0831066742539405823 -0.0840712785720825195 -0.14789348840713501
0.0924113690853118896 0.00889889523386955261 -0.137934193015098572
0.116287775337696075 -0.0279247201979160309 -0.0362636931240558624
0.0809220671653747559 0.0431801751255989075 -0.197969257831573486
0.159207060933113098 -0.0646350458264350891 -0.124099083244800568
0.0714637488126754761 -0.0229264572262763977 -0.175273478031158447
0.0217156652361154556 0.087953418493270874 -0.155125722289085388
0.0924113690853118896 0.0163415819406509399 -0.11405520886182785
0.0391409732401371002 -0.0269339047372341156 -0.0736508965492248535
0.0924113690853118896 0.00111536984331905842 -0.0959975719451904297
0.0472906753420829773 0.0784551575779914856 -0.17506706714630127
0.155024871230125427 -0.0630355402827262878 -0.194013655185699463
0.135601118206977844 -0.0223638378083705902 -0.191536605358123779
0.0881637036800384521 -0.0387296825647354126 -0.0588599182665348053
0.0924113690853118896 -0.00417573424056172371 -0.177953124046325684
0.0833365172147750854 -0.0833137780427932739 -0.126897275447845459
0.102540120482444763 -0.0727488473057746887 -0.13913959264755249
0.0782302320003509521 0.0487689115107059479 -0.172039881348609924
0.0924113690853118896 -0.012766694650053978 -0.0630788952112197876
0.0947615057229995728 -0.0646638572216033936 -0.0703349187970161438
0.156596541404724121 -0.0203937068581581116 -0.164598152041435242
0.14025568962097168 -0.0649384558200836182 -0.108462147414684296
0.0849466994404792786 -0.0460456386208534241 -0.207217887043952942
0.0310303475707769394 -0.0242293011397123337 -0.116919174790382385
0.0809905156493186951 0.04303712397813797 -0.121901124715805054
0.121175631880760193 -0.0260928627103567123 -0.0606858804821968079
0.0947615057229995728 -0.0391213968396186829 -0.237867116928100586
0.117451414465904236 -0.0215650293976068497 -0.162297949194908142
0.0476929545402526855 0.078134484589099884 -0.198406115174293518
0.0648450180888175964 0.0644549950957298279 -0.111203901469707489
0.0924113690853118896 0.0116716548800468445 -0.203621357679367065
0.0924113690853118896 0.00947783980518579483 -0.2441682368516922
0.0705697089433670044 -0.0280831381678581238 -0.0552485845983028412
0.105199597775936127 -0.0216802395880222321 -0.145640626549720764
0.127856016159057617 -0.0384829379618167877 -0.233937427401542664
0.148257136344909668 -0.0661030411720275879 -0.150084927678108215
0.104612976312637329 -0.0701911449432373047 -0.103388704359531403
0.149285390973091125 -0.0649720504879951477 -0.173264965415000916
0.0818467363715171814 -0.0221046023070812225 -0.150923192501068115
0.136932775378227234 -0.0628406256437301636 -0.0665788128972053528
0.0166784115135669708 0.0892226696014404297 -0.115205109119415283
0.188435345888137817 -0.0176651123911142349 -0.0985435619950294495
0.0669918954372406006 -0.0926296263933181763 -0.104814350605010986
0.11549089103937149 -0.0710033923387527466 -0.1637868732213974
0.0693994462490081787 0.060822952538728714 -0.142498493194580078
0.120155058801174164 -0.0233873017132282257 -0.104998305439949036
0.0469880513846874237 0.0786961391568183899 -0.121287040412425995
0.0777483657002449036 -0.0880768075585365295 -0.186468243598937988
0.0853004977107048035 -0.0451210625469684601 -0.147769540548324585
0.0712549313902854919 -0.0260755810886621475 -0.0873742550611495972
0.0924113690853118896 -0.013835282064974308 -0.029311811551451683
0.0626424551010131836 0.0662119835615158081 -0.223900556564331055
0.162966817617416382 -0.0187778640538454056 -0.14107842743396759
0.0637819021940231323 0.0653027743101119995 -0.168731376528739929
0.123880237340927124 -0.0234468318521976471 -0.20622803270816803
0.0849993154406547546 0.0347121059894561768 -0.088841564953327179
0.0496074892580509186 -0.0251884441822767258 -0.101570367813110352
0.0256491880863904953 0.0869616344571113586 -0.186178281903266907
0.0818370357155799866 0.041279185563325882 -0.218246534466743469
0.085985623300075531 0.0326661355793476105 -0.0616954118013381958
0.16546785831451416 -0.0212011560797691345 -0.0896901041269302368
0.0924113690853118896 -0.0207047890871763229 -0.0861671268939971924
0.07563018798828125 0.0541685037314891815 -0.0603932254016399384
0.153086423873901367 -0.0213874131441116333 -0.183055087924003601
0.156270116567611694 -0.0366558581590652466 -0.21612665057182312
0.0947615057229995728 -0.0704388543963432312 -0.193947404623031616
0.0947615057229995728 -0.0283058919012546539 -0.164218917489051819
0.0833236575126647949 -0.0816393643617630005 -0.103271663188934326
0.0924113690853118896 0.0153411505743861198 -0.0562231838703155518
0.0947615057229995728 -0.0319974608719348907 -0.129292726516723633
0.0494752824306488037 0.076712585985660553 -0.154151409864425659
0.0924113690853118896 -0.0188652332872152328 -0.217321962118148804
0.114653684198856354 -0.0668144822120666504 -0.0744734704494476318
0.00497841043397784233 -0.0260131750255823135 -0.0883801504969596863
0.0556107945740222931 -0.0223350375890731812 -0.147228822112083435
0.0947615057229995728 -0.0267380475997924805 -0.189074918627738953
0.0675067976117134094 -0.0234362594783306122 -0.129606202244758606
0.0889938026666641235 -0.0792928785085678101 -0.169958382844924927
0.187550127506256104 -0.0168730281293392181 -0.124798707664012909
0.143159970641136169 -0.0201498512178659439 -0.151755005121231079
0.120189622044563293 -0.021658165380358696 -0.130849242210388184
0.0149718374013900757 0.0896537452936172485 -0.135343089699745178
0.0515377670526504517 -0.0975309163331985474 -0.130167484283447266
0.174657925963401794 -0.0603943131864070892 -0.181413322687149048
0.095481380820274353 -0.0716802626848220825 -0.218950286507606506
0.0756006240844726562 0.0542299486696720123 -0.0331092923879623413
0.0508639700710773468 -0.0975520312786102295 -0.160382360219955444
0.144706696271896362 0.0611388161778450012 0.738001048564910889
0.0550586432218551636 -0.0782991722226142883 -0.784722983837127686
0.0216962713748216629 -0.0987022221088409424 -0.596695363521575928
0.298284083604812622 0.0666795521974563599 0.779780745506286621
-0.239691838622093201 -0.0728573501110076904 -0.245527759194374084
-0.312117815017700195 0.0703423246741294861 0.786969900131225586
-0.0734822452068328857 -0.0346310175955295563 0.502446651458740234
-0.00907124020159244537 0.120147347450256348 0.72259819507598877
-0.0127515858039259911 -0.0897704213857650757 -0.842926084995269775
0.0924113690853118896 0.0190941821783781052 -0.429047703742980957
0.0751803815364837646 -0.0663257986307144165 -0.449857831001281738
0.000333284493535757065 0.319876730442047119 0.699669122695922852
0.0506404563784599304 -0.0173117965459823608 0.647311091423034668
0.284464418888092041 -0.0450855270028114319 -0.0943730771541595459
-0.0903530940413475037 -0.00721347983926534653 0.186621278524398804
0.0924113690853118896 -0.0204340368509292603 -0.289507955312728882
-0.0561400763690471649 -0.0292448606342077255 0.587298274040222168
-0.0499048121273517609 -0.0859521105885505676 -0.595888853073120117
0.323333054780960083 -0.0219337102025747299 0.0540988743305206299
-0.0517880469560623169 -0.0837851762771606445 0.280523717403411865
0.0110980309545993805 -0.0457038283348083496 0.620929539203643799
-0.035940658301115036 0.0840170085430145264 0.42366480827331543
0.0175669826567173004 0.0863039642572402954 0.4613381028175354
-0.0135590294376015663 -0.0972572863101959229 -0.815065920352935791
-0.0611002296209335327 0.0298712886869907379 0.698681175708770752
-0.236996814608573914 -0.120810419321060181 -0.130285382270812988
0.0417684763669967651 0.0520418882369995117 0.694193661212921143
0.0348902307450771332 -0.0440707020461559296 0.601041078567504883
0.366773694753646851 -0.0166877284646034241 0.0637661069631576538
0.220453664660453796 -0.0372011959552764893 -0.201019495725631714
-0.0396995395421981812 -0.0141041027382016182 0.673290431499481201
-0.699852705001831055 0.017787490040063858 0.187072530388832092
0.0570826232433319092 0.0701311007142066956 0.459477454423904419
-0.363954484462738037 -0.00224016793072223663 -0.00870070233941078186
-0.338848859071731567 -0.0210033822804689407 0.0573209598660469055
-0.0416778214275836945 -0.0906930863857269287 -0.728345036506652832
-0.0489865727722644806 0.0754606053233146667 -0.123169988393783569
0.529345214366912842 0.00100209040101617575 0.0221133716404438019
-0.616839706897735596 0.00410896539688110352 0.100897915661334991
0.00701263872906565666 0.365761786699295044 0.803012251853942871
-0.193626299500465393 -0.0193328019231557846 -0.169206634163856506
0.199055954813957214 -0.122859261929988861 -0.19103926420211792
0.481624454259872437 -0.0147867416962981224 0.00136064912658184767
-0.00494207721203565598 -0.0921956449747085571 0.386667430400848389
0.00856105703860521317 0.275930166244506836 0.778450965881347656
-0.0703299492597579956 -0.0474368110299110413 0.455840617418289185
-0.192448243498802185 -0.0927515402436256409 -0.137203454971313477
0.0507310926914215088 -0.00762728322297334671 0.666815519332885742
-0.256121009588241577 -0.123839519917964935 -0.187305450439453125
-0.567721962928771973 0.0145721137523651123 0.0600697249174118042
-0.0368857793509960175 -0.0613428689539432526 0.526121675968170166
-0.041097152978181839 -0.0929762125015258789 0.23237861692905426
0.0924113690853118896 0.0137272244319319725 -0.596042454242706299
-0.0368857793509960175 -0.0613428689539432526 0.526121675968170166
0.191225394606590271 -0.0419556014239788055 0.0403540953993797302
-0.00494207721203565598 -0.0921956449747085571 0.386667430400848389
0.724412262439727783 0.0194887854158878326 0.17432914674282074
-0.0058169378899037838 0.312218993902206421 0.751862049102783203
-0.0874825939536094666 -0.0365060828626155853 -0.426267236471176147
-0.00511765014380216599 0.0602574422955513 0.811538875102996826
-0.0480552799999713898 -0.0874268338084220886 0.179689362645149231
-0.5706138014793396 0.0158845707774162292 0.0822240039706230164
0.0685337260365486145 -0.0527768880128860474 0.444644838571548462
0.221297606825828552 -0.0404357723891735077 -0.0226424857974052429
0.00120015942957252264 0.345882952213287354 0.718692541122436523
0.0111869368702173233 0.0868214592337608337 0.64703369140625
-0.0107651418074965477 -0.100728034973144531 0.158118829131126404
-0.132504492998123169 -0.0680213272571563721 -0.130698591470718384
-0.218236491084098816 -0.021382620558142662 -0.164400368928909302
0.0111869368702173233 0.0876884311437606812 0.597338974475860596
-0.004535638727247715 0.384451031684875488 0.79705578088760376
0.00275334366597235203 0.354494065046310425 0.841661036014556885
0.0266736149787902832 0.0724449381232261658 0.703108251094818115
-0.502625346183776855 -0.0171648971736431122 0.114723339676856995
0.152619838714599609 -0.0259613282978534698 -0.031347028911113739
0.598491489887237549 0.000830225355457514524 0.105355642735958099
0.261917471885681152 -0.0381699390709400177 0.00251286569982767105
0.00535328127443790436 0.339219868183135986 0.822985172271728516
0.167879641056060791 0.0639192685484886169 0.703066885471343994
0.0652967467904090881 -0.0857313051819801331 -0.249682113528251648
-0.0386096350848674774 -0.0943731367588043213 0.16485007107257843
0.00859903823584318161 0.0912599936127662659 0.0543993823230266571
0.00824860204011201859 -0.102526314556598663 -0.0681372210383415222
-0.0773934870958328247 0.0462332852184772491 -0.0313243679702281952
-0.448172420263290405 -0.0148289743810892105 -0.0248957406729459763
0.318145632743835449 -0.0365300886332988739 -0.00746649503707885742
-0.227265268564224243 -0.135487452149391174 -0.224290370941162109
-0.231726840138435364 -0.05084996297955513 -0.169513851404190063
-0.00987791456282138824 -0.0347375869750976562 -0.986673951148986816
-0.00195710174739360809 0.18937268853187561 0.791187703609466553
-0.210447221994400024 -0.12091219425201416 -0.256392240524291992
0.0279391203075647354 -0.0921034812927246094 -0.803388237953186035
-0.0611002296209335327 0.0298712886869907379 0.698681175708770752
-0.197272747755050659 -0.0812562927603721619 -0.116254307329654694
0.0921708643436431885 -0.0310440845787525177 -0.324590921401977539
0.30046159029006958 -0.0421965979039669037 -0.109269112348556519
-0.0126944603398442268 -0.102514788508415222 -0.089534856379032135
0.343951165676116943 -0.0042909448966383934 -0.0203068554401397705
0.00131707265973091125 -0.0168384630233049393 0.719420313835144043
0.00328321242704987526 0.25539049506187439 0.656123876571655273
-0.130298182368278503 0.0601710453629493713 0.726813018321990967
0.0904894471168518066 -0.0301387067884206772 -0.699692785739898682
-0.0735530033707618713 -0.0589637421071529388 -0.741461873054504395
-0.193626299500465393 -0.0193328019231557846 -0.169206634163856506
-0.0627035945653915405 0.0541243404150009155 0.70251011848449707
-0.0877510383725166321 0.0173160731792449951 -0.724850296974182129
0.191475018858909607 0.0660506784915924072 0.710271537303924561
0.355871766805648804 -0.0107111250981688499 0.0440821535885334015
0.00786947831511497498 0.149809584021568298 0.61351853609085083
-0.107980698347091675 -0.150655090808868408 -0.096020042896270752
-0.525719642639160156 0.0122582819312810898 0.0621272139251232147
-0.247963055968284607 -0.0625842809677124023 -0.279278069734573364
-0.172404259443283081 -0.0498495325446128845 -0.205559805035591125
0.221130549907684326 0.0684154033660888672 0.716347992420196533
-0.0903530940413475037 -0.0145534295588731766 0.164543807506561279
-0.0100027276203036308 -0.102503255009651184 -0.110883995890617371
0.598491489887237549 0.000830225355457514524 0.105355642735958099
-0.0765898898243904114 0.0479009747505187988 0.298868328332901001
-0.208262026309967041 -0.116809695959091187 -0.124012000858783722
0.0790694579482078552 0.0470263287425041199 -0.625407099723815918
0.596325516700744629 0.00444595701992511749 0.149334877729415894
0.00721074547618627548 0.212443158030509949 0.667859137058258057
-0.0290765278041362762 -0.0536390580236911774 0.567986845970153809
-0.197058647871017456 -0.088517509400844574 -0.274096429347991943
-0.496490359306335449 -0.0102675491943955421 0.0883945450186729431
0.0633775070309638977 0.0302063636481761932 0.702998757362365723
-0.0903530940413475037 -0.0145438304170966148 -0.435769319534301758
-0.266932666301727295 -0.0880950614809989929 -0.179154202342033386
-0.0151231251657009125 -0.0983316227793693542 -0.721576333045959473
0.190552368760108948 -0.104219928383827209 -0.17578713595867157
-0.261703014373779297 -0.105768561363220215 -0.271511822938919067
-0.428383827209472656 -0.018618488684296608 0.0689362287521362305
-0.0703299492597579956 -0.0474368110299110413 0.455840617418289185
-0.0870498791337013245 -0.024165937677025795 -0.750727832317352295
-0.0903530940413475037 0.00254688668064773083 0.202668368816375732
-0.00559001881629228592 0.0957916602492332458 0.466233670711517334
-0.00853896141052246094 0.157775625586509705 0.700650334358215332
-0.0789376124739646912 -0.0542515814304351807 -0.340428709983825684
0.0595862716436386108 -0.0149211520329117775 0.62568199634552002
-0.164147421717643738 0.0524796955287456512 0.66543203592300415
-0.502453505992889404 -0.00581077625975012779 0.132724225521087646
0.00961059797555208206 -0.101460590958595276 0.0706951245665550232
0.00986879784613847733 -0.100412175059318542 -0.687534153461456299
-0.0903530940413475037 -0.00359102408401668072 0.223817422986030579
0.231012836098670959 -0.0941667258739471436 -0.0997950434684753418
-0.00658250134438276291 -0.10254070907831192 -0.0434690378606319427
0.3751659095287323 -0.0381987355649471283 0.0210289396345615387
0.204339385032653809 -0.0522334650158882141 -0.176993995904922485
-0.0721618160605430603 0.0569787174463272095 -0.6218758225440979
-0.618365287780761719 0.0171499885618686676 0.161823838949203491
0.0924113690853118896 -0.0305016376078128815 -0.517611086368560791
-0.0702557340264320374 -0.0114033492282032967 0.579114377498626709
0.498881280422210693 -0.00392898870632052422 0.146937519311904907
-0.243620529770851135 -0.133298426866531372 -0.259456843137741089
-0.506984233856201172 -0.00551890768110752106 0.010860729031264782
0.498881280422210693 -0.00392898870632052422 0.146937519311904907
0.00536534888669848442 0.277658522129058838 0.708094000816345215
0.250345379114151001 -0.124724753201007843 -0.275660425424575806
-0.0133276451379060745 0.0805145725607872009 0.603036165237426758
-0.0741589143872261047 -0.0641732588410377502 -0.511282086372375488
0.437835365533828735 0.00412816461175680161 0.0089045325294137001
0.00419766781851649284 0.0922172144055366516 -0.259182244539260864
0.135809451341629028 -0.0609953328967094421 -0.220980897545814514
-0.0737961903214454651 0.0527120344340801239 0.369222432374954224
-0.0869150757789611816 0.0264619719237089157 0.215195730328559875
0.504021644592285156 -0.0125084184110164642 0.0211446378380060196
-0.0621365644037723541 -0.0293331891298294067 0.566602349281311035
0.00322600011713802814 -0.0522017925977706909 0.601032495498657227
-0.406204581260681152 -0.0271643251180648804 -0.00900505390018224716
-0.064253099262714386 -0.0591394565999507904 0.412563204765319824
0.0751184597611427307 -0.0649365410208702087 0.15221327543258667
0.0339473187923431396 -0.019476812332868576 0.675448715686798096
0.355871766805648804 -0.0107111250981688499 0.0440821535885334015
-0.0611002296209335327 0.0298712886869907379 0.698681175708770752
0.0190907549113035202 -0.0903157591819763184 0.380812764167785645
0.0805483013391494751 -0.0551799945533275604 -0.337442755699157715
0.0717217251658439636 0.0340083539485931396 0.606689333915710449
-0.132114693522453308 0.0606482140719890594 0.708227455615997314
-0.506984233856201172 -0.00551890768110752106 0.010860729031264782
-0.770125210285186768 0.122894756495952606 0.255787760019302368
0.481624454259872437 -0.0147867416962981224 0.00136064912658184767
0.167238280177116394 -0.0578778721392154694 -0.0629427284002304077
0.0455423332750797272 0.0292952340096235275 0.712574779987335205
-0.247963055968284607 -0.0625842809677124023 -0.279278069734573364
-0.474954366683959961 0.00363371497951447964 -0.00298081967048346996
0.607570230960845947 0.0197691377252340317 0.11382468044757843
-0.0634116753935813904 -0.0751807689666748047 -0.537449538707733154
0.0378486774861812592 -0.0943702757358551025 -0.705255568027496338
0.389265894889831543 -0.00287479348480701447 0.028703298419713974
0.0663866475224494934 -0.0408697314560413361 0.520964086055755615
-0.158823683857917786 0.0632491186261177063 0.704948723316192627
0.724412262439727783 0.0194887854158878326 0.17432914674282074
-0.0889070853590965271 0.0220032837241888046 -0.633843481540679932
-0.0157874170690774918 -0.0801953673362731934 0.450130850076675415
0.379527628421783447 -0.0337371565401554108 0.0460455603897571564
-0.195099085569381714 -0.058103516697883606 -0.144927069544792175
0.080016404390335083 -0.0562841184437274933 -0.500335991382598877
-0.0382750406861305237 -0.0280668139457702637 -0.0555089674890041351
0.00504820980131626129 0.0756747201085090637 0.726457834243774414
0.00965746119618415833 0.0960662513971328735 0.724689304828643799
-0.0522317066788673401 -0.0967916399240493774 -0.0847077742218971252
-0.0786044672131538391 -0.0296922698616981506 0.473812669515609741
-0.0386096350848674774 -0.0943731367588043213 0.16485007107257843
-0.0560876540839672089 0.069139331579208374 -0.647738993167877197
-0.0852486342191696167 -0.023161672055721283 0.430491119623184204
0.275722712278366089 -0.0880854502320289612 -0.230416744947433472
0.238946139812469482 -0.0802760273218154907 -0.245622783899307251
0.379931837320327759 -0.0308837518095970154 -0.0458238720893859863
-0.279509007930755615 0.0734914466738700867 0.763017416000366211
0.0456993095576763153 -0.0743646919727325439 -0.00064902531448751688
-0.0668357685208320618 -0.0660732835531234741 -0.784329354763031006
0.0422059930860996246 0.082509651780128479 -0.601338386535644531
-0.0870119482278823853 -0.0335614718496799469 0.299277305603027344
0.135809451341629028 -0.0609953328967094421 -0.220980897545814514
0.0120786763727664948 -0.10089796781539917 0.16266968846321106
-0.0318535156548023224 -0.0959150716662406921 -0.388870447874069214
-0.0756855681538581848 0.0465280450880527496 0.471272259950637817
-0.0662296563386917114 0.0278195533901453018 0.66459578275680542
-0.00733677390962839127 0.0831788405776023865 0.544835031032562256
-0.172404259443283081 -0.0498495325446128845 -0.205559805035591125
-0.0667867064476013184 0.0569585449993610382 0.528671741485595703
-0.0382750406861305237 -0.0280668139457702637 -0.0555089674890041351
-0.149552956223487854 -0.0216360762715339661 -0.187264159321784973
0.00971390493214130402 0.209024235606193542 0.693640708923339844
0.254051357507705688 -0.126382827758789062 -0.172666817903518677
0.428010672330856323 -0.017519170418381691 -0.0395241864025592804
0.219448447227478027 -0.0930981338024139404 -0.246309250593185425
0.0109778270125389099 0.135711506009101868 0.712828218936920166
0.0751184597611427307 -0.0649365410208702087 0.15221327543258667
-0.205626562237739563 -0.05420646071434021 -0.174795359373092651
0.278206497430801392 -0.0447715818881988525 -0.0505290292203426361
0.011366955004632473 -0.101060234010219574 -0.460235536098480225
0.477787941694259644 0.00626438111066818237 0.010214678943157196
-0.0368917286396026611 -0.0901227965950965881 -0.799517154693603516
0.0924113690853118896 0.0190941821783781052 -0.429047703742980957
0.278206497430801392 -0.0447715818881988525 -0.0505290292203426361
-0.0696170777082443237 -0.0702314674854278564 -0.362413018941879272
-0.0491830110549926758 -0.0865272358059883118 -0.419617593288421631
0.0701176896691322327 -0.0714738443493843079 -0.516084492206573486
0.0915531367063522339 0.0211036708205938339 -0.528051137924194336
0.0594511888921260834 -0.0795108303427696228 0.148371905088424683
-0.0903530940413475037 0.0178374201059341431 0.287984669208526611
0.427092820405960083 -0.021619752049446106 0.041873931884765625
-0.567721962928771973 0.0145721137523651123 0.0600697249174118042
0.41006353497505188 -0.0180817916989326477 0.0709822028875350952
0.0225098598748445511 0.0872938260436058044 -0.452334940433502197
0.0111869368702173233 0.0928643122315406799 0.56721872091293335
0.0424168296158313751 -0.0448464639484882355 0.00923796836286783218
-0.086484469473361969 0.0174773801118135452 0.495603084564208984
0.00669970456510782242 0.187369033694267273 0.772114396095275879
0.0161366276443004608 -0.0306629296392202377 0.667074739933013916
-0.0567695163190364838 0.069253578782081604 -0.322807967662811279
-0.663486063480377197 0.0111196059733629227 0.121371045708656311
0.0470255911350250244 0.0669128522276878357 0.632578432559967041
0.0834235101938247681 0.0368963368237018585 -0.646183669567108154
0.0100695062428712845 -0.0997593104839324951 -0.709923624992370605
-0.239691838622093201 -0.0728573501110076904 -0.245527759194374084
-0.72118610143661499 0.0217738188803195953 0.208330050110816956
-0.0252635907381772995 -0.0974185764789581299 0.292871564626693726
-0.326440572738647461 -0.0379875153303146362 -0.0932068526744842529
-0.00987791456282138824 -0.0347375869750976562 -0.986673951148986816
0.0111869368702173233 0.110357508063316345 0.659683883190155029
-0.0567208379507064819 0.0689175352454185486 0.421915531158447266
0.107495196163654327 -0.100322872400283813 -0.0997892916202545166
-0.527958571910858154 -0.00861810054630041122 0.0787311643362045288
-0.00511839939281344414 -0.0652619898319244385 0.54194033145904541
-0.0288128834217786789 0.0856443792581558228 -0.173477143049240112
-0.0405097641050815582 0.0822216272354125977 -0.52735602855682373
0.485851824283599854 -0.0135654881596565247 0.0686011537909507751
-0.0495364218950271606 -0.0850333124399185181 0.324327290058135986
-0.0847626328468322754 0.0309312343597412109 -0.0675437301397323608
0.2979317307472229 -0.0248293615877628326 -0.1265297532081604
0.00832229945808649063 0.2897491455078125 0.753214776515960693
0.0612875670194625854 0.0559581294655799866 0.600044488906860352
-0.0517880469560623169 -0.0837851762771606445 0.280523717403411865
-0.0564687177538871765 -0.0798890963196754456 -0.652642190456390381
-0.0513557121157646179 0.0735711380839347839 -0.0554870776832103729
0.00582918291911482811 0.02716093510389328 0.79857945442199707
-0.23338589072227478 -0.113508880138397217 -0.175653696060180664
0.0242951624095439911 0.0868867486715316772 -0.388422101736068726
-0.208262026309967041 -0.116809695959091187 -0.124012000858783722
0.618091940879821777 0.00535133481025695801 0.135861814022064209
-0.137204170227050781 -0.151346355676651001 -0.0953099504113197327
0.00131707265973091125 -0.0168384630233049393 0.719420313835144043
0.0680853575468063354 0.0614162907004356384 -0.64182281494140625
-0.0596802420914173126 0.00237310468219220638 0.653487443923950195
0.047604244202375412 0.0782045722007751465 -0.0457903668284416199
-0.0903530940413475037 -0.00359102408401668072 0.223817422986030579
-0.00803297944366931915 0.0889932066202163696 -0.669576406478881836
0.0924113690853118896 0.00130355870351195335 -0.29754301905632019
0.0924113690853118896 -0.0204340368509292603 -0.289507955312728882
0.0702109113335609436 -0.069994315505027771 -0.669280707836151123
0.0348902307450771332 -0.0440707020461559296 0.601041078567504883
0.0456993095576763153 -0.0743646919727325439 -0.00064902531448751688
0.255817979574203491 -0.0782300457358360291 -0.132639259099960327
0.336933821439743042 -0.037931833416223526 -0.0375018343329429626
0.000146601974847726524 0.259813159704208374 0.822759568691253662
-0.502453505992889404 -0.00581077625975012779 0.132724225521087646
-0.0547100082039833069 -0.0821203812956809998 -0.624470055103302002
-0.0390283353626728058 0.0810503065586090088 -0.696631073951721191
-0.245057791471481323 -0.0607581883668899536 -0.158717066049575806
0.359330028295516968 -0.007912428118288517 -0.0769712254405021667
0.215898975729942322 -0.0605565495789051056 -0.282664358615875244
-0.00536595098674297333 0.0915566682815551758 -0.135956302285194397
-0.0208276472985744476 -0.0946554094552993774 0.346122443675994873
0.0404928848147392273 -0.0944134816527366638 -0.319046318531036377
-0.0708616524934768677 -0.0607140101492404938 0.364719569683074951
0.0672828033566474915 0.00348585634492337704 0.639493048191070557
0.107495196163654327 -0.100322872400283813 -0.0997892916202545166
0.41006353497505188 -0.0180817916989326477 0.0709822028875350952
-0.0515103824436664581 -0.0225645024329423904 0.625193297863006592
-0.155406683683395386 -0.0182430986315011978 -0.130306020379066467
-0.0705906152725219727 0.058231644332408905 0.163906291127204895
-0.0430215746164321899 -0.0501855649054050446 0.549008548259735107
-0.247963055968284607 -0.0625842809677124023 -0.279278069734573364
-0.0813569724559783936 0.0360140055418014526 0.44704514741897583
0.202475830912590027 -0.105978809297084808 -0.110123209655284882
-0.0337644964456558228 -0.0888948291540145874 -0.0124685131013393402
-0.063268810510635376 -0.0752940773963928223 -0.396823883056640625
-0.0888171270489692688 0.00302020576782524586 0.390301406383514404
